# 3D point list with one line of data per point:
#   POINT3D_ID, X, Y, Z, R, G, B, ERROR, TRACK[] as (IMAGE_ID, POINT2D_IDX)
# Number of points: 370, mean track length: 5.0308235075666143
2037 1.3183414322291793 1.180057356969535 3.5365111470927419 170 168 169 0.40491801040115227 3 3055 2 3193 5 2371 4 3508 6 2493 21 6400 7 5897 8 5959 15 5664 12 6511
2038 2.3650843749388617 1.1427159587562163 3.2505382468871993 119 116 75 0.16240521134130534 1 3353 2 3210 24 6331
2039 2.1883231231746603 1.0995571522594816 3.0251661323970405 187 187 156 0.24685389339525166 1 8166 2 3228 27 7313
2040 1.5284582266439641 1.1686762352050122 3.3574995496108122 153 153 155 0.25387724889339403 1 8161 3 3078 2 3233 5 2369 6 2480
2041 2.724726166183256 1.2597851605547463 3.6652482004324676 181 176 146 0.51059487494816513 1 8186 3 7475 2 3234 4 3409
2042 2.5130766812660483 1.2242370096867201 3.4298499060172856 83 78 49 0.55450787887686248 1 3434 2 3257 24 6364 25 8096
2043 2.4106267553550644 1.1917563998683922 3.2982234880576025 161 156 127 0.83673179512153029 1 3424 2 3262 26 6569 27 8764
2044 1.6552730135656963 1.1696116827844338 3.2412305601831437 59 59 59 0.43151930619255435 1 8190 3 3107 2 3270 25 2158
2045 2.1717362759810008 1.1382189926257664 3.0178652032646887 191 187 150 0.32397456183060597 1 3463 2 3293 24 6354
2046 1.6774328233805065 1.181391808744922 3.2230069618124526 147 147 147 0.26880649095206272 3 3139 2 3304 4 3575 5 2377 6 2494
2047 2.8530297852418607 1.375679301367337 3.8905167907772 112 110 85 1.0061380690735051 1 3507 3 3093 2 3317 23 1802 25 5800 26 9128 27 5280 28 4993 29 4761 30 5838
2048 2.1254384596106544 1.1362336426425597 2.9655933093630562 152 149 118 0.25751407536682513 1 3474 3 3108 2 3318 4 3517 23 1753
2049 1.6103532294759577 1.2099770284331453 3.2889810841689044 49 49 49 0.6285952969046138 3 3168 2 3323 5 2389 21 6404 22 1962 7 3131 9 6018 11 3633
2050 1.3797408456336613 1.2582003247594871 3.5011855022369462 90 90 90 0.29079748007812223 3 3179 2 3329 4 3625 5 2403 6 4864
2051 2.7940662456742373 1.3799280991917748 3.8621107456426076 62 58 30 0.68592202870013808 1 3544 2 3332 28 4995 30 5830
2052 2.7943553912017776 1.3800238032321779 3.8617649185216543 62 58 30 0.59566072393942471 1 3543 2 3333 24 2273 25 5805 26 6661 27 5273 28 4994 29 2158 30 5829
2054 1.629208770508058 1.2299083393890118 3.2692835852923556 92 92 92 0.39004494403512185 3 3195 2 3364 4 3632
2055 2.3803788061705435 1.2506414362783353 3.2741187660219859 152 146 120 0.81003351586800265 1 8229 2 3365 25 8113 27 5204 29 6649
2057 1.1731188177329703 1.3332806223636477 3.7317373291353069 67 65 66 0.30613160560302471 3 3225 2 3368 4 3682
2058 1.1740247459007993 1.3564846647078765 3.7320764937271584 159 157 158 0.42496192216892353 3 3259 2 3383 5 2441 6 2572 7 3206 8 3314
2059 1.1740247459007993 1.3564846647078765 3.7320764937271584 159 157 158 0.42496192216892353 3 3260 2 3384 5 2442 6 2573 7 3207 8 3315
2060 1.9144758579064316 1.1971958564730403 3.0178496502712435 175 176 178 0.94458803587777029 1 3585 3 3212 2 3392 4 3622 6 2510 7 3114 8 3212 9 3177
2061 -0.80068670363240868 3.2195625486754373 11.274773852992446 119 118 114 0.28105873509325979 1 3561 2 3407 22 2480
2062 2.0089192161593155 1.1915122610612845 2.9244693898896172 79 84 81 0.33003362374853679 3 3231 2 3408 4 3637 5 2394 6 2507 21 2179
2063 -0.97211646784228278 3.1665549009607403 11.029997226203241 210 210 208 0.44089923277651266 1 3569 2 3413 24 2601
2064 1.263341370601502 1.367010723809666 3.6481833380277142 115 115 115 0.57559150635486489 3 3295 2 3420 4 8142 5 2446 6 2579 7 5936
2065 1.7438570940165787 1.2692248117821985 3.1809362948541922 104 104 106 0.046540750843132382 1 3611 2 3443
2066 2.9471365635853224 1.5201120814671278 4.0198483281062556 95 91 56 0.60780007326234131 1 8283 3 3240 2 3449 24 6505 25 8173 27 8834
2067 1.9311724744174104 1.2339410862430464 2.9980368673486328 90 92 87 0.48132612616171322 1 3635 2 3451 4 8117 5 4672 6 2532 22 6315 7 5901 8 3231 21 2190 20 7090
2068 1.3617598160079916 1.3900203458758753 3.596790894703648 133 133 135 0.4992653240906319 1 3634 2 3467 22 2041
2069 -0.65714068905670175 3.271635609837706 10.831277196183207 198 197 193 0.42967904352336322 1 3637 2 3490 22 2566
2070 1.2375227816566703 1.4376744471555427 3.688751236204209 141 141 141 0.27736140036539886 3 7618 2 3492 4 8176
2071 1.9984716452269864 1.271642223523886 2.9427118142113828 184 191 184 0.42802170752891089 1 3688 2 3513 24 6487 22 1998
2072 2.9906109386813751 1.6145797087757359 4.0634841195014255 102 97 68 0.006800237170620926 1 3735 2 3530
2073 1.9226337326877321 1.3055890025353087 3.0093647192793682 119 121 118 0.42529073233336695 1 3713 3 3357 2 3534 24 2397 6 2564 21 6428 22 6338
2074 1.3581732793074139 1.4600077291012707 3.60573720035097 121 121 123 0.78315696148385316 3 3383 2 3540 4 3818 1 3706
2075 1.3583007533382148 1.4590647668284684 3.6108430107880056 121 121 123 0.13965721032854231 3 3384 2 3541 4 3819
2076 1.1567911319516133 1.4980379391692609 3.753730416940753 157 155 155 0.15561005889956281 3 3398 2 3549 6 2617
2077 2.0579900263139201 1.3067311323020891 2.9085615762664006 187 189 165 0.17384790825267396 1 8338 3 3374 2 3569 4 3794
2078 2.5336671382232439 1.516409210789472 3.6095125105147141 115 111 74 1.0746131325185873 1 8345 2 3571 25 5924
2079 2.7021047355000163 1.5758184704920879 3.8111072137403594 165 163 125 0.43429158598702894 1 3776 2 3574 4 3751
2080 1.2808674217282698 1.4934635856950331 3.6452211461322652 59 59 59 0.88051075281425695 1 3723 2 3577 6 2612
2081 1.9921884053113974 1.3256065259937488 2.9400194311774204 181 185 185 0.13003988345477221 3 7649 2 3585 4 8181 5 2461
2082 1.2091774661974148 1.5345482936990782 3.7187613427734996 75 75 75 0.62075930547851588 1 3751 2 3594 4 3882 21 6471
2083 1.557605752752008 1.4780242272064583 3.4655264188031221 65 67 54 0.25437227947655022 1 3774 2 3602
2084 1.3564862919542908 1.5202991231803731 3.6130509052135515 146 146 148 0.30067295588942228 3 7673 2 3605 4 3878
2085 2.7098703372727551 1.6237054326841969 3.8353237599731207 151 148 117 0.4730554927587996 1 3829 2 3617 24 6608
2086 2.3909652594037061 1.5228817145413129 3.4474998317836096 181 177 142 0.35126005565261481 3 3431 2 3637 4 3816
2087 1.151266125740336 1.5810515213164529 3.7601797751125567 179 181 178 0.96157651702012448 3 3497 2 3640 21 6487 22 6455 8 6075 19 2567
2088 1.232974703710223 1.568829236859375 3.6949044151530033 211 212 216 0.67445051589998462 3 7694 2 3641 4 10258 5 5970 6 6958 21 10178 23 8572 22 10145 7 8354 8 8381 9 9024 10 9469 11 9851 18 6232 19 7886 17 7172 16 7749 15 8922 14 8520 13 9343 12 9098
2089 2.6169175039218464 1.626679512589172 3.7064151638188774 168 166 128 0.37458248821252266 3 3449 2 3660 21 6438
2090 1.3551737191725404 1.5777432359236292 3.6191973970548106 142 142 144 0.20200087701549313 1 8375 2 3667 4 3938 5 2543 24 8901 6 2637 22 6452
2091 -0.01030085802736741 3.3659537541883466 9.7547642236770429 203 199 187 0.30230802737910212 3 3575 2 3684
2092 2.1097717496772797 1.4431029492227494 3.0462342401769109 145 139 113 0.25528536544679076 1 3900 2 3692 24 6606 29 4786
2093 2.1095334736744573 1.4437254632162742 3.0508043009477963 145 139 113 0.1326401357370236 1 3901 2 3693 24 6607
2094 1.1775418858765363 1.6327794305228738 3.7518325753036894 211 211 219 0.56070863232409629 1 3875 2 3702 23 6085 21 6514
2095 2.7723543782279321 1.6994487450193672 3.8154612690951444 71 69 43 0.62053671600085381 1 3927 2 3711 4 3837
2096 2.8570805524566407 1.7205943313404428 3.8859646539098547 88 81 51 0.58080911282083447 1 3923 2 3712 27 5519
2097 2.133932060453688 1.4882379386108484 3.0885130870638235 181 175 151 0.36249156990957915 1 3939 2 3740 24 2584 25 5958 26 6761 27 5395
2098 2.6434999109172406 1.7078019779818829 3.6230944792292066 149 143 117 0.44288809723982131 1 8453 3 3551 2 3778
2099 2.8721948646921307 1.8103776315250772 3.9161557180738962 146 140 108 0.5613351379771031 1 8459 2 3790 26 10580
2100 1.3136056936301981 1.6760840613340693 3.5899314044126682 103 104 108 0.36975959483000392 1 3964 3 3663 2 3804 23 6133 6 2702 22 2268 11 4011
2101 1.4861323483191131 1.6645280668346547 3.5120966334723058 174 176 180 0.38095234977780412 3 3665 2 3813 6 2687 8 3430 9 3368
2102 2.1400607889327543 1.5558244783907731 3.1059709978457324 131 126 104 0.40863175112337258 1 4008 2 3814 25 6003
2103 1.1539404866453911 1.7199493699682744 3.7164928056000774 175 176 178 1.7966937896919823 3 3697 2 3819 4 8311 1 8443 5 4774 24 8957 6 4956 21 8962 21 8969 9 6184 11 6917
2104 1.3210207315914655 1.6875585278381382 3.5771002705402553 208 209 214 0.50604355982475713 3 3693 2 3821 4 8303 5 2592 6 2703 22 6556 24 6694 7 3349 21 6546 8 3472 20 9723 9 3409 10 3789 11 4023
2105 1.331099049480331 1.697386539589026 3.5727702024844286 90 91 96 0.19349044292289364 3 3702 2 3837 4 4092
2107 2.0265145667733289 1.5495338995812666 2.9929178440305968 122 122 114 0.13604891618200718 1 4052 2 3860 4 4026
2108 2.6971186998426186 1.808353090418384 3.7106450633465551 173 167 131 0.059588986952725576 1 8502 2 3868 4 3977
2109 1.4341227220048607 1.7003513756212483 3.4858099133969636 130 134 137 0.15867948516678529 3 7767 2 3871 5 2597
2110 1.6259184113358547 1.6871756317907065 3.4185378888940821 75 77 76 0.23412588549751012 3 3730 2 3873 4 8310
2111 1.7045507162831059 1.6563637837858245 3.3220195668588737 149 153 152 0.48943507865853275 1 4051 2 3874 4 4081 24 6710 23 2192 22 2237 7 3308
2112 1.6705984128991598 1.6726913301907727 3.3540412744428107 187 191 190 0.91339639397744732 1 4055 2 3883 5 2586 24 6714 21 6524 22 6543 7 3320 8 3413 8 3417 9 3347 10 3717 18 2214 17 2724 12 3645
2113 1.5308655323937268 1.6940235371550918 3.3989514739195186 184 187 193 0.077774198663151953 3 3746 2 3891 4 4125
2114 1.5435505025501 1.6944922690576634 3.3998688210730719 175 178 184 0.15458503604245458 3 3745 2 3892 4 4122
2115 1.4377885034355131 1.7470624337087051 3.4846569691779972 89 93 96 0.26472840353698063 3 3787 2 3924 21 2410 7 3381
2116 1.7175483029633698 1.7044870597869604 3.3216424821182748 107 111 112 0.40285490666155216 3 3766 2 3929 4 4137
2117 1.3283811997885597 1.7788510678049239 3.5551056762433944 184 185 189 0.38213761825709308 1 4102 2 3937 24 6757
2118 1.6321366867279417 1.7189927632197601 3.34097903384728 176 180 183 0.42513841680443476 1 4113 3 3790 2 3940
2119 2.5836897778153469 1.8312803652602991 3.571080314169758 157 153 118 0.68576732291195341 1 4152 2 3943 24 2870 23 2260 26 3185
2120 5.5761696757482611 3.3977914042779926 7.965639263181747 250 250 240 0.22887078791364548 3 3712 2 3945 4 3951
2121 1.544572916602962 1.7438124660338579 3.3919025836846628 196 200 203 0.19876439703036861 3 3804 2 3949 4 4177 21 2400 9 3421
2122 1.4794137807289562 1.7687584327222796 3.4512665553402471 77 81 84 0.25811139663858984 3 3819 2 3956 5 2624
2123 2.2362786731689832 1.7104501433603287 3.2235294970389878 86 82 53 0.32410319601269411 1 8550 3 3762 2 3958
2124 1.5842141875070053 1.7552748461891221 3.3584686927322531 164 168 171 0.32794290984865865 3 3831 2 3980 4 4209 5 2625 6 2748 22 6613
2125 1.7852124504861222 1.7208401092808956 3.2320387956860541 182 186 185 0.53684631263177118 3 3824 2 3986 4 4171 1 8551
2126 1.2639190409762793 1.8524089914855988 3.6235248727930345 98 99 101 0.26435498014329534 3 7821 2 3994 4 8390
2127 3.3459306478790296 2.1091814625409011 4.2136448215081304 183 185 164 1.1792128901225558 1 8579 2 3995 27 9663
2128 2.4459592038038234 1.8307373518974788 3.43264657716851 133 128 90 0.49106844829815521 1 4212 2 4002 26 6988 29 6894 30 8032
2130 2.5342107795877626 1.8715072076263186 3.5162982782250589 73 68 38 0.0057631407860444794 1 4236 2 4012
2131 2.3118880973355318 1.7824806720783146 3.272229172360007 115 111 74 0.65658241137534035 1 8577 2 4018 27 8917 28 8195
2132 1.2632439493008154 1.8770657378145068 3.6358938476934517 73 74 76 0.35010967536378429 1 8566 2 4024 24 6832
2133 1.5020652894693347 1.8140733139921261 3.4331502373783982 201 205 208 0.19314806718969926 3 3868 2 4025 4 8388 21 6637
2134 3.0175647175576579 2.056941195343585 3.9846586409472131 87 88 72 0.87718744753050437 1 8602 2 4033 25 2774
2135 1.8264899472161642 1.7394754182393488 3.1355552796719306 110 114 117 0.49846185709317514 1 4243 2 4043 4 4235 7 3363 25 2613 8 3466 11 3850 20 2843
2136 1.7036500535162018 1.7901907529971091 3.2519641709859921 182 183 187 0.31621318147273952 1 4259 3 3904 2 4060 4 4273 23 6265 25 2624
2137 1.8599587672214084 1.7486029318122878 3.1201455861059078 122 126 130 0.22606981298282158 1 4271 2 4061 25 2627
2138 1.7349893434811405 1.7919755015192305 3.227017946339783 172 175 178 0.15241402799182402 3 3922 2 4072 4 4280
2139 1.9714265415196914 1.7396711541787422 3.05768934719107 87 87 87 0.053879517225673766 3 3895 2 4074 4 4249
2140 1.8674087902406677 1.7489909412243128 3.0881457889500856 186 187 192 0.044517722036782247 1 4289 2 4076 23 2438
2141 1.1149243690759365 1.9851802673300583 3.7827164323001288 177 178 180 0.28335763992857949 1 4264 2 4083 4 4368 5 2683 24 6886 11 7077
2142 2.1807657782825229 1.7713014287014326 3.0990974237424433 157 153 116 0.36112953306137663 1 4315 3 3898 2 4085 4 4228
2143 1.9972381230645371 1.7463590219240808 3.0342049910302751 135 136 134 0.91784700962813914 3 3923 2 4091 4 4264 6 2738 21 6566 9 3359 10 3711
2144 3.0974699981453555 2.1038529462091105 3.9303638283310489 119 114 92 0.56976168272843286 1 8645 2 4092 24 9088 25 8402 26 10659 27 9669 28 8906 29 8684 30 9862
2145 3.1187958141782266 2.1127274152544695 3.9512777156428651 207 202 180 0.80837002674505642 1 8643 2 4093 25 9617 26 11330 27 10118 28 8907 29 9053 30 10259
2146 1.666930016666349 1.8308796630287147 3.2882050879414764 80 81 83 0.17066117504384656 3 3938 2 4096 4 8410 6 2790 7 3422
2148 2.3602168556447563 1.8719205671234707 3.335286607891804 108 102 68 0.149003634290581 3 3899 2 4102 4 4224
2149 1.3539432764277031 1.9413794893273493 3.5771850509742147 78 79 83 0.13194942690590841 3 3968 2 4118 4 4367
2150 1.637417744424932 1.8624574390374393 3.3138337091930765 81 82 84 0.27529746986364534 1 4332 2 4123 24 3023 23 2574 25 2676
2151 1.7498801156380752 1.8396615101828995 3.2112149552046971 94 95 97 0.78290861806732004 1 4356 2 4136 4 8426 3 7859 6 5000 21 6649 22 6675 7 6039 20 7287 10 6838
2152 1.7085263623382452 1.857311793905825 3.2491341198942516 191 192 194 0.46339538391825358 1 4358 3 7868 2 4144 4 10363 5 4835 6 5002 21 9012 23 8708 22 8936 7 6043 8 3551 9 3468
2153 2.8253919542743362 2.0582957513437026 3.6960606619632301 90 92 79 0.38861822546348335 1 4420 2 4146 25 2881
2154 1.6781837040909675 1.8609853944748209 3.2521848815297867 92 93 95 0.67440515061684381 3 3983 2 4147 4 4364 21 6671 6 2812
2155 1.7966863880595829 1.8342941215325832 3.1573501798675214 96 97 99 0.89424311580198768 1 8651 2 4151 23 6321 6 2797 5 2664 21 8999 22 6669 7 6036 25 2701 8 3525 9 6180 10 8538 6 6215 18 6247 20 11034 19 7033 16 2720 15 2942 14 6027
2156 2.8909779103659483 2.0665627057481677 3.6958664341944587 196 194 176 0.2038840887127791 3 7848 2 4152 4 4222
2157 0.94376039222352315 1.9976757850491105 3.6750150681100617 109 112 119 0.45617995966497993 1 4331 3 4021 2 4157 5 2748 23 2684 6 2924 7 6135
2158 1.7663534146946356 1.8447338623666525 3.1867463915035037 88 89 91 0.59049180593665052 1 4375 3 3984 2 4164 4 8432 5 2666 24 6904 23 6335 6 2804 21 9006 22 6681 7 3427 8 3543 9 3460 10 3806 11 3963 18 2280 17 2802 15 2956 14 3321
2159 1.0686059948366804 1.9966644859585025 3.6540916898383733 243 246 251 0.1545060937897868 3 4012 2 4168 4 8469 5 2732 6 2907
2160 2.7476834749768519 2.0496735858872945 3.6448289850192328 157 158 142 0.18011364771694213 3 3950 2 4172 4 4246
2161 1.3326897066316863 1.9838424304256934 3.58693577830548 110 112 116 0.24386351715624005 3 4000 2 4174 4 4406 21 2614 7 3530
2162 2.0863760454674898 1.794564645977581 3.0082772347071089 125 121 89 0.24885188460008978 1 4416 2 4176 25 6180 26 7015 27 5618
2163 2.8626416746911931 2.0612593572115263 3.662398179585685 202 198 181 0.082626171970008086 3 3944 2 4178 4 4230
2164 2.0065090189081318 1.7797840362038029 2.9655658094963013 109 115 113 0.11953338123609303 1 4414 2 4186 4 4321
2165 2.8381974643249746 2.0587207485562051 3.6331534690396365 187 191 168 0.20179423514328407 3 3955 2 4194 4 4247
2166 1.1045850044988565 2.0002991321497356 3.6170880479798559 238 241 246 0.077859899700257792 3 4031 2 4197 4 4451
2167 2.7390219610658857 2.0611294481797602 3.6356157212131803 80 82 68 0.12251273026249759 3 3959 2 4200 4 4266
2168 1.1702389146181664 2.0053929057492472 3.604945968666367 226 229 234 0.26553643050060927 1 4379 3 4040 2 4209 5 2739
2169 1.9302504404650405 1.826377846315451 3.0418674528591287 65 69 68 0.41703509901435437 3 7879 2 4223 4 8438 5 4833 6 4998 21 6636 22 8929 7 6034 8 6132 9 3424 10 3765 11 3888 20 11029 18 4891
2170 0.80460084675054488 2.0791518692275694 3.8081991646629119 198 200 195 0.17702092556948662 3 4079 2 4228 4 8521 8 6298
2171 0.84442161175645492 2.0712915852432245 3.7570228129875627 92 94 89 0.1726557118656564 3 4089 2 4240 4 4512
2172 2.5663996060965553 2.0606689231333242 3.5801911380240279 118 116 101 0.52439709491710618 1 8687 2 4243 4 4309 25 8417 26 7200
2173 2.6750236978328732 2.0591639134018385 3.5482512989354795 152 153 139 0.13630892904138983 3 3990 2 4254 4 4305
2174 2.3741252162371453 1.9859369694905735 3.3707056167690657 102 96 62 0.54061451945796457 1 4498 2 4260 28 7113 29 5187
2175 1.6522104785306908 1.9381643490197782 3.2819247768409849 218 218 220 0.42096335331607815 1 4466 2 4270 23 6408
2176 1.437935405919037 2.0207940722093665 3.4876724401355261 205 206 208 0.37288471640731735 1 4469 2 4288 4 8496 20 2997
2177 1.5601453500839502 1.99522498567746 3.4133709150680867 78 78 78 0.365466005568649 3 4081 2 4292 4 4458
2178 1.4773900515727783 2.017094505757461 3.4677544566735015 4 4 6 0.22161103755788983 3 4091 2 4295 5 2738
2179 2.667766776637186 2.0610202747440614 3.4698923185446873 155 160 143 0.041657167702241676 1 4553 2 4300
2180 2.8149729639457459 2.1313921169274761 3.6343506903009812 127 123 96 0.28300026675503637 1 8714 2 4303 24 7038
2181 2.7417662593710421 2.0877799266867179 3.5183649608614469 113 109 82 0.73341458679373961 1 4569 2 4312 23 2659 25 6354 26 7284 27 7801 29 5363
2182 1.343458242526876 2.025774585806698 3.4754463410190382 146 151 155 0.079760727142394724 1 4491 3 4114 2 4314 4 4499 24 3195
2183 1.8304163267589999 1.911569886395293 3.1377863499016705 90 92 91 0.53711185334264122 1 8698 3 4078 2 4316 4 4435 5 2694 24 6974 23 6404 7 6061 21 9032 25 2823 8 3586 10 8559 16 5480 20 11047 15 2974
2184 2.8287657309610377 2.1308774759850233 3.62069754154391 205 201 174 0.25346529092522307 1 4573 2 4321 24 7040
2186 1.0779447107257125 2.0646576573698883 3.5598691214307419 197 201 202 0.27624202886687838 1 4500 2 4331 4 4552 23 2805 8 3859
2187 1.0310973556182979 2.0807345450394856 3.6010807780297345 202 203 205 0.14402052958209632 3 4148 2 4337 4 4559 7 3728 8 3879
2188 1.2219129955757388 2.0224191126038322 3.426875179830656 235 238 243 0.11097254575667824 3 4139 2 4340 4 8537 5 2790
2189 2.1950790435485352 1.9505227919052752 3.1566496330615843 132 126 92 0.68914917834677969 1 4570 2 4341 25 2909 26 9398
2190 2.6677798328196318 2.0853752109778538 3.4601178139799491 177 180 161 0.33559601339495698 1 4609 2 4343 24 7045
2191 1.5526025627383317 2.0329678922903969 3.4177489979506026 16 17 19 0.31077590372467601 1 4535 2 4344 4 8518 5 4876 24 7022 22 6825 7 3553
2192 2.6367267482836607 2.0773678984424722 3.4302702942025931 187 190 173 0.54820559834366001 1 4605 2 4349 26 9457 28 7184
2193 0.84747621442622612 2.150484807571551 3.7620474842096954 207 209 206 0.20906528772792513 3 4178 2 4353 4 8556 5 2830 6 3031 21 9133 7 6200 8 3957 9 3882 15 3353 14 3821
2194 1.2855513074612399 2.0327899067006512 3.4138877229830751 180 183 188 0.10951198068063149 3 4151 2 4359 4 4545
2195 2.4071696919150285 2.0699804302581657 3.4102492483405893 136 138 116 0.37618323062061815 1 4612 2 4361 24 7051 25 6348 26 7257
2196 1.5511051642216875 2.0406657052475694 3.4032786163652227 172 173 177 0.29209090031057794 3 4136 2 4364 4 4516 5 2758 6 2903
2197 1.2435098839645193 2.041942495489645 3.4121958778303387 78 81 86 0.37298509081391135 1 4554 3 4176 2 4384 4 4569 5 2800 23 6493 6 2961 21 9104 22 6861 7 6149 8 6263 20 9863 9 3725 10 7006 11 7094 18 2449 19 2745 17 2982 16 2901 15 3161 13 6961 12 6855
2198 2.3565889192974456 2.0649925535878393 3.370654395989408 44 39 18 0.32121021141755074 1 4630 2 4388 25 6352
2199 2.0781113764599852 1.9203661941124717 3.0106059641749088 121 113 77 0.31663779338166098 1 4627 2 4398 28 5368 29 6939
2200 2.4508780511180062 2.0738867204382805 3.3587213032465115 187 188 170 0.09457069920270833 3 4117 2 4399 4 4421
2201 2.1118055835966505 1.9498413057512021 3.0649896083857366 117 109 73 0.5049980013789126 1 4651 2 4408 26 7191 28 7102
2202 1.7461025652275346 2.0064498899859 3.2321881554788061 140 141 141 0.35759219364257233 1 4622 2 4411 4 8525 5 2754 3 4163 24 3287
2203 1.1338083865551829 2.1175819904288633 3.5099323408698102 187 189 192 0.21920756895351926 3 4226 2 4430 4 4626 5 2836 21 9126 7 3750
2204 1.7462170272565238 2.0210215174974664 3.222950672813639 70 70 70 0.17556163246781026 3 4181 2 4434 4 8534 5 2768
2205 2.0952664190186034 1.9583863802769652 3.0344846402603345 168 163 131 1.1433183234972149 1 8747 2 4436 25 9634 27 9658 28 8244 26 10656
2206 1.2087192223681802 2.1005442864182768 3.4406304381802157 214 215 217 0.39256937525384095 1 4634 3 4235 2 4447 4 4628 22 9041
2207 1.8875712450951996 1.9942410841258442 3.10960660728602 92 93 95 0.51601506294832844 3 4189 2 4454 4 4536
2208 1.9709554691196862 1.9644464635835954 3.01242803130592 135 136 140 0.25227525446048582 1 4690 3 4191 2 4458
2209 1.7844515904441165 2.034721532144689 3.1860758777816369 118 118 118 0.20671725350680886 3 4215 2 4465 4 4570 7 3550 8 3688
2210 0.81433793625283646 2.2529416433084797 3.7902300497194066 174 178 177 0.067189006301615506 3 4274 2 4470 4 4706 6 3093
2211 1.9554948553848459 1.9854012987875016 3.0314375589887139 155 156 160 0.16114420293414178 3 4202 2 4479 5 2759 6 2880
2212 1.7514799028921053 2.0634464298691468 3.2193000769232101 150 150 150 0.48039357069646682 3 4238 2 4487 4 4584 5 2791
2213 1.4450681508849068 2.0649719397489918 3.2361318715817187 92 95 99 0.42527088876766372 3 4265 2 4495 4 4638 6 2991 22 2892 7 3693 8 3821 9 6317 10 4053 17 2956
2214 3.0637807715882497 2.4100343877395454 3.9177898360522985 116 111 89 0.24813291121349584 1 8800 2 4500 25 8528 26 9561 27 7951
2215 2.4610206503838512 2.0987823699240629 3.2158700434577256 213 211 190 0.33544506382733558 1 8781 2 4503 24 7123 26 7362 27 7829 28 7201
2216 2.7625396607181631 2.2562175799393018 3.5612478118030482 125 122 100 0.15615521975085261 1 4767 2 4504 24 7148
2217 2.7629596864408832 2.2553732272423601 3.560698186825058 125 122 100 0.24929301282634714 1 4768 2 4505 25 6496 27 7889 26 9532
2218 2.5749272698074122 2.1689587160690365 3.3580467376147234 199 195 168 0.22192398681318751 1 4766 3 4205 2 4516 25 3157
2219 1.4833037386359145 2.0712404876076236 3.2030720289617034 101 102 104 0.33201508908377214 3 4273 2 4518 4 4649 7 3702 21 6844 8 3822 24 3411 20 7427 9 3706 10 4045 11 4296 18 2437
2220 0.99167380943748928 2.2350282803834642 3.6364701625954763 92 96 99 0.35912573353013572 3 4309 2 4522 4 8599 5 2894 6 5158 21 6969 7 6232 8 6356 20 7585 9 6436 19 5689 17 3158
2221 1.8769907977174287 2.0442393029144665 3.1042082824707204 136 136 138 0.6503382414925355 1 8778 3 4261 2 4525 4 10429 5 4898 24 9200 6 5064 7 6105 8 6201 9 6253
2222 1.8217599456074756 2.0749532161611342 3.1607244675518835 160 161 165 0.73294966846089027 1 4737 2 4534 4 4617 24 3424 23 2883 6 2933 7 3590 25 3030
2223 2.5792970687908472 2.1818579231828479 3.3587824596176783 113 109 84 0.35979745849118616 1 8807 2 4535 24 7146 25 8508 26 9517 27 9034 28 7258
2224 1.7582074962869907 2.0745608821355326 3.1537438392778343 143 146 151 0.13695885658819906 1 4741 3 4270 2 4549 26 7250
2225 1.5254986376488735 2.0756945413212673 3.1704376102058345 79 83 86 0.1458736760232637 3 4297 2 4554 4 4669
2226 1.7209491432743036 2.0741513406251149 3.1266750865029764 242 245 250 0.49980654774944078 3 7981 2 4568 4 8573 5 2821 6 5090 7 3648 8 3752
2227 0.88377580507775211 2.3092979639437541 3.7326515846415398 194 195 199 0.21672999221068778 1 4730 2 4580 5 2943 23 6626 21 7022
2228 2.0246154652028343 2.0299937832165238 2.980372184432142 46 43 34 0.22270895330074966 3 4276 2 4581 4 4615
2229 1.270048284904624 2.1795892378447674 3.3920929585006894 206 210 213 0.19240949025186671 3 4336 2 4585 4 8604 5 2888 6 3059 22 3044 7 3806 8 3924
2231 0.99167168847192699 2.2779075516058058 3.6339608581272511 225 229 232 0.23679790502535575 3 4366 2 4594 4 8626 5 2930 6 3122 21 7004 22 7017 7 3928 8 4071 10 4392
2232 1.9064749996601162 2.0856916192892538 3.0887172147171769 167 167 169 0.31508836280208807 1 4800 2 4600 4 4645 22 6884
2233 1.1548716229061859 2.2506994409758234 3.4947214604860268 222 225 232 0.070014643825449349 3 4382 2 4618 4 8630
2234 1.6318752859881243 2.0961647000716188 3.0924436407119305 136 137 139 0.89775020054186827 1 4825 2 4625 21 6854
2235 2.0103167954919163 2.0682838939164729 2.9942561756379193 70 66 67 0.52715357783276739 3 7993 2 4626 4 4651 5 2810 21 9089
2236 2.0809291154382166 2.0959940705163591 3.0259076010589658 150 152 138 0.13862823158729912 3 4332 2 4635 4 4655 5 2808
2237 2.2365886896533866 2.1044557245352475 3.0314045597321693 92 93 88 0.16040548493048079 1 4886 2 4637 25 3201
2238 2.2781856669172025 2.1063635692868106 3.0312977039418003 105 108 101 0.23551948937656939 1 8840 2 4641 4 4635
2239 0.83196647201111262 2.3839492476182746 3.7872968760150316 186 187 191 0.33713690850094802 1 4796 3 4419 2 4645 24 7189
2240 1.4887916882254464 2.1549081017566105 3.2025303519527464 212 213 217 0.13627433077798282 3 4380 2 4646 4 8614 6 3050 7 3765
2241 1.2323573587514858 2.2419498771619608 3.423830117548599 218 221 228 0.15403634890577758 3 4398 2 4651 4 8635 5 2931 6 3101 22 3133 7 6229 8 3988
2242 1.6976196057456092 2.0847798583493202 3.0142988941501616 229 233 236 0.13004255853492683 1 4863 2 4656 21 6853
2243 2.2263382495239457 2.1061751890353348 2.9888813334084943 189 189 186 0.20606569211411296 3 4351 2 4668 4 4661
2244 1.4240339132959989 2.1964394123324529 3.2560296807115772 122 123 127 0.17054414831471609 1 4873 2 4670 4 4819 23 8888 6 3070 22 6990 7 3817
2245 0.91304668729265992 2.3820498475836591 3.7030865654201364 200 204 207 0.13120621320400255 3 4459 2 4680 4 8668 21 3277
2247 1.7571018855707887 2.0914874448217855 2.9694170469110577 229 233 236 0.25886118584650875 3 4396 2 4687 4 4771 5 2872 7 6153 8 3803
2248 0.82736630571356795 2.4207568933499952 3.7755391729328922 192 193 197 0.41121607474859534 1 4867 2 4699 4 4949 24 3626 21 3352 22 7119 8 4247 9 4184
2249 2.4163992825965916 2.2112421169022225 3.160242750107721 136 131 106 0.35082480773562907 1 4944 2 4700 24 7223 23 2994
2250 1.0064387759972999 2.3652836501358263 3.6197845945343117 194 196 201 0.27308520026039235 3 4474 2 4706 4 8671 6 3197 8 4155
2251 2.4209742241690289 2.236374583464702 3.1810098719205993 212 210 189 0.14240901612325491 1 4973 2 4725 27 6063
2252 1.7456598564142882 2.1216029814037571 2.9768592035040151 93 94 96 0.23019650639007322 3 4426 2 4729 4 4811 7 3736
2253 1.7095345731338134 2.1399137710396849 3.0080884849397216 60 61 63 0.5414929712159624 3 4439 2 4735 4 4829 5 2901 6 3048 21 6904 22 6967 9 3714 19 2748
2254 2.2565717427575849 2.1505885551334742 2.9895708413374922 213 210 180 0.33514540135135124 1 4972 2 4737 27 7873
2255 1.8173232595091191 2.1076642578239571 2.9031540519836274 136 140 143 0.33722175354082173 1 4970 2 4750 4 4822 3 4445 21 2778
2256 1.9796639235888382 2.1059439616622972 2.8820430110351234 189 193 196 0.27549821093537147 3 4433 2 4754 4 4793
2257 1.9585486582094673 2.1101417582724138 2.8697667892499097 188 192 195 0.22718793927796876 1 4991 2 4770 4 4815
2258 1.961021487541192 2.1149173916731399 2.8815556576150136 188 192 195 0.7719495595545991 1 4992 2 4771 4 4816 24 3656
2259 1.877866671096728 2.1083224823250006 2.8583632691676431 231 234 239 0.58904190303720871 3 4471 2 4774 4 4844 6 3035 21 9120
2260 2.3770955807883283 2.2527078116394215 3.1177852061997648 218 213 191 0.33328557552120569 1 5047 2 4787 24 7274
2261 2.5261888636711118 2.346775348601319 3.3054120309094279 102 100 79 0.31082606107961003 1 5058 2 4790 26 7629
2262 1.6932844535630123 2.1876896302849027 3.0231593698710455 207 208 210 0.24405102378373963 3 4502 2 4792 4 8657 5 2945 6 3073 7 3787 8 3884
2263 1.9053304312965635 2.1114137704996385 2.8355928219492625 236 239 244 0.41648418508137097 3 4485 2 4794 4 4861 5 2902 6 3038 21 6876 7 3715 20 7417 11 4146
2264 1.6458479796280918 2.2071175717386571 3.0622656474525929 119 120 124 0.23939987859289999 3 8051 2 4796 4 4911 5 2952 6 3091
2265 2.2495280945626246 2.2023646160218084 2.982249516853035 214 211 179 0.63591446884151137 1 8896 2 4810 25 9678
2266 1.4145907813776804 2.3020597859294818 3.2605891352114922 127 130 137 0.21252069858524092 1 5009 2 4816 22 3290
2267 1.9127677124311435 2.1244093107929389 2.8286764487539773 129 133 136 0.36016947766039897 1 5054 2 4823 4 4883 23 6668
2268 2.3615130766225447 2.2737551913308396 3.1139107118451057 227 223 196 0.52715820515108047 1 5094 3 4475 2 4824 4 4797 24 7291 25 6645
2269 1.2162375747384719 2.389432644530495 3.4391525271558216 223 226 231 0.35056799261203825 3 8082 2 4830 4 10510 5 5006 6 5207 21 9230 22 9114 7 7633 8 7688 20 9993 9 6467 10 8677 18 5095 19 5723 17 5898
2270 1.2799053235751825 2.3619464963730086 3.3809074426703911 198 201 206 0.27546722388006178 1 5024 2 4833 4 8700 5 4997 22 3381
2271 1.5669773425972822 2.2684671935147653 3.1466703621053806 198 201 208 0.27788438313503683 3 4542 2 4838 4 4972
2272 0.76738583435683405 2.5524283864490207 3.8258832824218043 193 194 198 0.035133952997167824 3 4597 2 4842 4 5130
2273 1.6869382295222186 2.2294374317097203 3.0409637302315962 118 122 125 0.11828914631361324 3 4536 2 4847 4 4951
2274 2.0608938568847988 2.1285241631168876 2.7694024626056715 243 244 239 0.36155711274939845 3 4520 2 4853 4 4887
2275 0.90014686941097666 2.5245011512835434 3.716179993399837 88 91 96 0.20769634969856146 1 5029 3 4608 2 4855 4 8740 5 3116
2276 2.2244725146960529 2.2325858743594105 2.9554779501424857 221 217 192 0.37227456310968782 1 8917 2 4881 26 10733
2277 1.5417607399154187 2.297469274480775 3.1500393136412068 130 133 140 0.66773582423738154 3 8088 2 4890 5 4989 4 8695 6 3169 21 9193 22 7080 7 6239 8 6344 10 8649 11 7133 18 2558 20 9937 17 5853 14 3637
2278 1.5876826681712553 2.2874692842930138 3.1183488916470328 108 111 117 0.27219225862711299 3 4570 2 4891 5 3018 6 3159 21 3076 23 6723 7 3906 8 3981
2279 1.3719294658628436 2.3736894324597708 3.2974973901126279 203 206 213 0.18295468370483961 1 5109 2 4908 4 5081 23 6765 20 3613
2280 1.5196624485007235 2.3221898013001647 3.1688981006167625 102 105 112 0.29548724427789785 1 5121 2 4914 4 8716 21 7031 20 7610
2281 0.94587363471179364 2.5459066036298945 3.6740961174916382 198 201 206 0.40475576130941776 3 4651 2 4923 4 5195 21 7204 6 3337 18 2912
2283 1.1204816038733079 2.4878330468807874 3.5188136283892968 211 214 219 0.16143212502229595 3 4647 2 4936 4 8750 5 3119 6 3293 7 4165 8 4273
2284 0.91789785867159146 2.5732458879384366 3.7008549077590991 82 85 90 0.26836627244864769 3 4681 2 4945 4 5231 5 3156 6 3360 21 7237
2285 2.8957609146317722 2.6553002560062371 3.7177245065557312 214 209 187 0.96293767792802754 1 8950 2 4948 25 8656
2286 2.0066768695164181 2.1612054233319298 2.7421094412310136 192 196 195 0.32287709418139915 1 5198 2 4950 4 4981 22 3144
2287 0.83191127404049237 2.6066585928038033 3.7735041101299776 124 125 129 0.2617551066071071 3 4695 2 4957 4 5258 5 3170 21 3736
2288 1.6486290930345544 2.3088389248839052 3.0627121206533401 127 128 133 0.32695200154648768 3 4626 2 4974 4 5073 5 3049 21 7026 7 3929
2289 1.2496927869299981 2.4594156499490882 3.4070305470168285 128 131 136 0.1822532957609761 3 4664 2 4975 4 8751 6 3274 10 4490
2290 1.1824144753352464 2.4915853203827387 3.4695516083083393 210 213 218 0.10554200375285999 3 4683 2 4979 4 8757
2291 1.182248981117155 2.4909776784115487 3.4690281968606436 210 213 218 0.2224997826988826 3 4682 2 4980 4 8756 5 3124 6 3296 7 4163 8 4256 9 4148 10 4550
2292 1.6014620005954172 2.3353145123556245 3.1010829792813661 205 206 211 0.20836000734388138 3 4641 2 4986 4 8734 5 3063 6 3201 7 3965 8 4025
2293 1.2469515929722916 2.477325659093351 3.4143070998198546 232 235 240 0.19992415509113551 3 8126 2 4992 4 8758 5 5028
2294 2.5108403460109594 2.465602127716195 3.2851835765306925 144 139 117 0.47472578248413827 1 5274 2 4993 24 7408
2295 1.926703393978193 2.2180687553718443 2.8155853810512057 210 211 216 0.18349480637564414 1 5239 2 4996 4 8711 5 3002 6 3109
2296 2.3107136212817445 2.3498743420173311 3.059161987430167 94 92 69 0.46904206631120404 1 8954 3 4600 2 5000 24 7376 25 6747 26 9637
2297 1.153632658346371 2.5202577822787537 3.4978731763337212 221 224 229 0.27948969868386647 3 4709 2 5006 4 5237 5 3140 21 7180 7 4194
2298 1.7146128660979874 2.3036365956496025 3.0027253042968423 187 190 195 0.67644238213157781 3 4648 2 5007 4 8725 6 3176 21 7025 8 3979
2299 0.81312836120214038 2.6494982722710296 3.7935715938856251 195 196 200 0.21838994957290164 1 5158 2 5010 4 5312 24 4020 21 7329
2300 0.84688036573556624 2.6375820585948944 3.7639661151927464 197 198 202 0.1785242792372794 1 5161 2 5011 4 5308
2301 1.4248219059121769 2.4172368831907076 3.2565022456049952 205 206 211 0.50646069380412206 1 5212 2 5012 23 6813 21 9238 4 10531 8 6385 10 7131
2302 1.1741422611795356 2.5194965854171771 3.4783374514924232 77 80 85 0.17762411511711082 1 5192 3 4725 2 5023
2303 2.4742436748896641 2.4669395353698995 3.2610188629803667 167 162 142 0.47743150599830325 1 8966 2 5026 25 6802
2304 1.9637067796545389 2.2161008924166694 2.7668991633263933 135 136 141 0.4930499359433172 3 4649 2 5036 4 5060 21 6963
2305 1.741217438574163 2.3102617816977671 2.9751147346508744 213 216 222 0.19351126226512344 3 4676 2 5040 4 8738 6 3184 7 3926
2306 1.6382127820832082 2.3582293819374556 3.0762178125475144 202 203 208 0.13824555263721172 3 4702 2 5043 4 8746
2307 1.6382127820832082 2.3582293819374556 3.0762178125475144 202 203 208 0.13824555263721172 3 4701 2 5044 4 8747
2308 1.9348010579117649 2.2414206022473255 2.8062473762212217 203 204 208 0.25037823663497888 3 4658 2 5048 4 5083 20 3252 22 3291
2309 1.9224656022436566 2.2504665183455108 2.8217526805716244 207 210 215 0.12643399010526965 3 4665 2 5051 4 5089 6 3146
2310 1.523379018849639 2.4050303142459706 3.1715611722732486 218 219 224 0.15682555622725267 3 4717 2 5056 4 8755 5 3102 7 4043 6 5219
2311 1.8422505439715082 2.2786924658666972 2.8789502741200375 124 127 134 0.12892884018800094 3 4689 2 5059 4 5111
2312 1.1055721712477078 2.5688748226549327 3.5348611530225504 223 226 231 0.39859764889601285 3 8145 2 5063 4 8795 5 5056 6 5260 21 9294 18 2873 19 5796 17 3367 9 7825
2314 1.5565249565206316 2.3923899056703122 3.1264644375120163 127 128 133 0.20894545957186875 1 5278 2 5071 23 6838
2315 2.7418161277573518 2.6548784692211269 3.5622366039340183 120 116 91 0.13041233703577851 1 8988 2 5075 25 8682
2316 1.3369716321747567 2.4908987057108156 3.329536201711135 107 110 115 0.30695693349744646 3 4757 2 5088 4 5275 6 3311 21 7165 20 7768
2317 1.4801894877309039 2.437327591833752 3.2059002098768397 218 219 224 0.095125631022654603 3 4747 2 5090 4 8772
2318 0.81336020437250878 2.6954274470878561 3.7873416429910418 194 198 201 0.28235605271702224 3 4803 2 5092 4 8829 5 3247 21 7394
2319 1.4325652220818812 2.4741186102022152 3.250975506539703 115 118 123 0.047728348037629605 3 4770 2 5098 4 5285
2320 0.98214221316271177 2.6485324501121665 3.6402941581047248 216 219 224 0.27900527950395737 3 4811 2 5101 5 3237 4 5385 21 7341 6 3441 16 3371
2321 1.7766327944262819 2.3435246139161463 2.9519009401292791 126 129 136 0.080029090576684697 3 4741 2 5104 4 5204
2322 1.8183638815472833 2.3280501822286288 2.9140082979314275 134 137 144 0.28059929714038656 3 4742 2 5116 6 3202 7 3936
2323 1.9940573872293403 2.2541689924502326 2.7485958721932171 200 202 211 0.46221876223951436 3 4726 2 5117 4 8741 5 3056 6 3158 21 6990 8 3907 9 3752
2324 1.7969999753867021 2.3332928650722664 2.9212268230996545 138 141 148 0.21952603983773147 3 4748 2 5124 4 5205 21 3207 22 3458 20 3453
2325 1.580919037150982 2.4199535403230725 3.1096682752845002 84 85 90 0.15670469618607355 1 5354 2 5127 23 6858 22 7198
2326 4.7600062470967446 4.4748047201190024 6.9711840944643955 247 247 235 0.48273773264682346 1 10643 2 5128 4 4885
2327 1.7851995309214161 2.3452907679340513 2.93834550549894 224 227 234 0.42238391205246811 1 5375 3 4755 2 5129 4 8761 23 6840 8 4005
2328 1.1823988415204116 2.5886412959297052 3.4677542743051308 110 113 118 0.21699863698760646 3 4815 2 5140 4 5371 21 7283 9 4242 18 2871
2329 1.7957961022649784 2.3506034047770266 2.9239835267064125 76 79 86 0.52943315158088233 1 5400 3 4772 2 5152 24 7448 23 6853 21 9218 7 3974 11 4405 18 2547 19 2899
2330 1.5237469472146357 2.4617419419887421 3.1673538317920351 220 221 226 0.49222841072284051 3 8161 2 5155 5 3151 21 9250
2331 1.407904951233685 2.5112055600191741 3.2673569831817799 217 220 225 0.29458798123857877 1 5367 2 5161 4 5338 20 3848
2332 1.2261250753077242 2.5970846210313709 3.4371692995964525 205 208 213 0.12256191404037137 3 4855 2 5174 4 5400
2333 2.4471335889556505 2.5436673335520505 3.2259329290213863 125 120 100 0.40881358154574238 1 5482 2 5175 25 6880
2334 1.4149254313263917 2.5214204112188003 3.2614908365854887 128 131 136 0.48934231394049033 1 5395 2 5178 4 8817 21 7192 7 4188 8 4249 20 7794 9 4105 10 4480 19 3111
2335 1.0238814321739298 2.672944779509641 3.5914957417554363 193 196 201 0.09194377591266796 1 8981 2 5191 24 9367
2336 4.9551561205666239 4.5162854925801934 6.9041648074969988 200 200 187 0.22478587353056242 1 5594 3 4693 2 5196 4 4914
2337 0.78072161771827953 2.78961078331159 3.8223754448449387 115 118 123 0.44161376496394639 1 5363 2 5199 23 3680
2338 0.85468969668234773 2.7656120421177679 3.7528701675000802 192 195 200 0.042697293200269916 3 4919 2 5208 4 5567
2339 1.3693502350573188 2.5569347653096823 3.302028125251681 229 232 237 0.3231505255205751 3 4878 2 5209 4 5413 21 7240 22 7260 8 4299
2340 1.6158550536709901 2.4608242086954011 3.0837748247136241 230 231 236 0.53157883317853338 3 4846 2 5210 4 8812 5 3162 6 3295 21 7150 22 7224 7 6312 8 6392 20 7730 9 3973 10 4335 17 3179 19 3013 16 3064
2341 1.3523666788819013 2.5688893043589025 3.3185034663669657 101 104 109 0.078575363875418955 3 4888 2 5215 4 5430
2342 1.3527180703609281 2.5699735872931759 3.3207921248478871 101 104 109 0.25902228260795496 3 4887 2 5216 4 5429 5 3219 6 3381 21 7258 22 3786 8 4318 10 4562 9 4177 19 3161
2343 1.8108503275510062 2.3730648357117032 2.8980604064464281 151 154 163 0.57471776824146159 1 5474 2 5217 23 6872
2344 1.4501530579683886 2.5334757565082429 3.2284604976391251 210 213 222 0.23423483289174155 3 4884 2 5226 4 5402 21 7214 20 3882
2345 1.7089368467233577 2.4359040213362637 3.0036047361865301 117 118 123 0.096818627634749729 1 5490 3 4859 2 5228
2346 1.4123486299716115 2.5546059657884626 3.2614254633040405 197 200 205 0.22928141532635063 3 8192 2 5234 4 8839 21 7241 22 7262
2347 1.0966137805113925 2.6873475581003623 3.5358109516410905 199 202 207 0.19786013037444397 3 8203 2 5244 4 5547
2348 1.9744634543728208 2.3354904127219482 2.7703711634359549 184 187 192 0.25747710590474432 3 4840 2 5246 4 8788
2349 1.9744634543728208 2.3354904127219482 2.7703711634359549 184 187 192 0.25747710590474432 3 4839 2 5247 4 8787
2350 1.1698577650604094 2.6607439191759368 3.4708761714038805 70 73 78 0.23740060768186722 3 4928 2 5250 4 5534 20 7943 21 7378 18 2950
2351 1.7113760852556754 2.4495522537673273 3.0020596632689593 205 206 211 0.17129004800228778 1 5527 2 5261 22 3644
2352 1.7952716108651576 2.4192977975674044 2.9298765287864361 193 196 205 0.25234545772467787 3 4886 2 5267 4 8814 5 3154 6 3269 20 7680
2353 1.8376676114097505 2.4021541807689664 2.8950787789707273 214 217 226 0.48384705507585835 1 5543 2 5268 4 5340 23 3522
2354 1.1046523705927962 2.6987183447457728 3.5289240859410564 87 90 95 0.30058746069553782 3 4954 2 5276 4 8869 21 7421 22 7331 20 7993 18 3004 19 3372 17 3474
2355 1.9089234366652503 2.3711015477245696 2.8236984752326735 203 206 213 0.29140396109483629 3 4875 2 5279 21 7082 7 3996
2356 1.5031981839313837 2.5371494591511059 3.176129449146611 126 129 138 0.34439855134065134 1 5524 2 5282 22 9179
2357 0.96906801667782183 2.7609707769763645 3.651523115279554 189 192 198 0.18081196952080142 3 4983 2 5287 4 8891 21 9348
2358 1.4791477337964429 2.5674123623391836 3.2135439522435769 105 108 117 0.11820162694440746 3 4932 2 5297 4 5486
2359 1.2339931805973008 2.6683242118642885 3.4135759602511913 194 197 202 0.27988122227878187 3 4984 2 5308 4 8873 21 7391 20 7948
2360 1.2723476043006556 2.6608032935693333 3.3840500144910539 116 119 124 0.073583299813493416 1 5552 2 5314 4 8874 22 7323
2361 1.4860763551822895 2.5765774983980592 3.1994464356891994 208 211 220 0.52536419255718469 3 4964 2 5315 4 8855 5 3250 21 7285 23 3666 8 4300 9 4150 18 2793 19 3142
2362 1.5124171461197382 2.5650065762883481 3.1797148867838594 206 209 218 0.13654683369762288 3 4957 2 5316 4 8852
2363 0.96917273446655849 2.8021484848946043 3.66689569901129 209 212 221 0.055943435578736121 3 8235 2 5329 4 8913
2364 1.8426092691367839 2.4300911910516523 2.8813720759896042 110 113 122 0.35858292174691492 1 5623 2 5331 4 5415 21 3442
2365 1.3064732435608475 2.660480627322777 3.3611838851647331 179 182 187 0.21320109517595656 3 5009 2 5334 4 8883
2366 1.7080563344667983 2.4849228712962592 2.993629331430653 200 201 206 0.29903367442851281 1 9059 3 4944 2 5335 4 8844 24 9416 21 3572
2367 1.3475360152380067 2.6413984877777494 3.3174486744069904 199 202 207 0.051477089757301531 3 8225 2 5345 4 8879
2368 1.765644896678944 2.4739873820806895 2.9615358891327239 209 212 219 0.1780713760882722 3 4939 2 5346 4 5451
2369 1.9000233034935619 2.4177795886263045 2.8381660504529225 148 151 158 0.13847791706114113 1 5639 2 5347 4 5416
2370 2.0133144828787319 2.369148269422046 2.7303757046500552 129 128 123 0.44239546540472485 3 4914 2 5355 4 5378 6 3252 21 7081
2371 0.85203288342835792 2.8562069177960487 3.7555620187421024 114 117 122 0.1106610378555809 1 5551 3 5076 2 5360 4 5748
2372 1.5553121953399467 2.575936714721121 3.1382643547246247 87 90 99 0.2867214853310241 1 5635 3 5014 2 5377 4 5569 5 3255 24 4416 6 3411 21 3745 22 7292
2373 1.3758228663065717 2.6527057664422284 3.2939651300039667 201 204 209 0.54982610088047368 1 5630 2 5379 4 8892 23 7051 21 3900 22 9209
2374 1.3498934475295217 2.6682498012141651 3.3235586671963651 70 73 78 0.16095102910962225 1 5629 3 5048 2 5389 24 7579
2375 1.3514231449453122 2.6585388554677878 3.307693967993556 70 73 78 0.54050254402827169 3 5047 2 5390 4 8897 20 10087 21 9323 18 2914
2376 1.0190412181049413 2.8041710627390835 3.602672400602871 77 80 89 0.11653267482318813 1 5603 3 5093 2 5393 4 5743
2377 1.0189162341503732 2.8044836182477173 3.6037574822084748 77 80 89 0.078551178808087499 3 5092 2 5394 4 5742 21 4231
2378 1.358133657157933 2.6751279274318964 3.3107565153352558 204 207 212 0.063947347164177409 3 5060 2 5413 4 8903
2379 1.8380364182731013 2.4800736370118179 2.8918379249248893 111 114 123 0.16933000640956528 1 5700 2 5423 4 5519
2380 1.8918761366737802 2.4587866871999648 2.8454803191556239 202 205 212 0.24949551521384405 3 5006 2 5427 4 5496
2381 1.7181269316986048 2.5319640976191207 2.9908046471981784 119 122 129 0.055283505786382331 3 5036 2 5430 21 7232
2382 1.7765692576222532 2.5127538467505874 2.9370433152284865 83 86 93 0.23858826857091406 3 5042 2 5438 4 5571 20 3795
2383 1.3003010382022842 2.7264555025289523 3.3713871055069493 129 132 137 0.11361362208627664 1 9092 2 5439 23 9075
2384 1.6936706297872437 2.5566753633553527 3.0180448962850401 108 111 118 0.44451313603495862 3 5055 2 5442 4 5603 6 3395 21 7265 8 4241 20 7800
2385 1.4390411842787785 2.6609274319106997 3.2295765311825138 190 193 198 0.39744717665711687 1 5696 2 5445 4 8916 22 7345
2386 1.6974639625472605 2.5658288112255132 3.0105306354259569 231 234 241 0.41339619320148091 3 5089 2 5457 4 5625 5 3263 21 7280 7 4231 8 4248 20 3890
2387 1.4618713403148291 2.6640967327841905 3.209729106857945 83 86 91 0.24105557118905274 1 9109 3 5121 2 5466 4 8919
2388 1.7222289646925089 2.5614620726663988 2.9882914757513435 105 108 115 0.37281829760528395 1 5772 2 5474 24 4502 23 3757
2389 1.7337312364209985 2.5582638116801535 2.9727918868541088 220 223 230 0.43403305511873991 3 5102 2 5480 5 3267 21 7274
2390 1.1921050287971693 2.7948941108901182 3.4518359018898837 114 117 124 0.20848334279068825 3 5174 2 5492 4 5828 21 4245 22 7440
2391 1.2390119672674045 2.774401903522171 3.4081609267436108 198 201 208 0.14385788988736911 3 5170 2 5497 4 8949
2392 2.5682714251419898 2.8201379528404211 3.3641411239316032 216 212 187 0.69135420269328363 1 9139 2 5508 24 9506 23 3791
2393 1.8490764125703554 2.5215042684762539 2.871933297134305 210 213 222 0.12343253965029508 3 5105 2 5521 4 8894 21 3655 20 7753
2394 1.4798463318047879 2.6854841082904146 3.1976596855123547 61 64 69 0.21291024644155346 3 5159 2 5525 21 7432
2395 0.81669444356801912 2.9947462108904581 3.793610572410067 131 134 139 0.20967853891793187 1 5754 2 5536 4 8996
2396 1.2215017952446439 2.8193689668747655 3.4289756892072063 99 102 109 0.069441212687801832 1 5795 2 5544 21 4298
2397 0.87890226765860402 2.9719157549480246 3.7329289330448923 109 112 119 0.16127756040800281 3 5264 2 5554 4 5988
2398 1.8767572729396775 2.5334834520213469 2.847200642663728 119 122 129 0.32554562974502682 3 5144 2 5556 4 5663 21 7246
2399 2.0320697697338059 2.4852044452859281 2.7412907904139914 181 180 158 0.081341152444192683 1 5926 2 5563
2400 1.7725259284396579 2.5858157944186715 2.9386890565705022 202 202 210 0.34720130461799092 3 5176 2 5574 4 5730 21 7303 20 3933
2401 1.4399191452065194 2.7603653781737263 3.2362022576247433 113 114 119 0.091410895588680416 3 5253 2 5623 4 5904
2402 3.2629629357110645 3.3682222683064125 4.1691369477866926 166 160 136 0.29900076869129194 3 5113 2 5632 1 9190
2403 1.7769763967949821 2.6215897339699681 2.9364885804138905 107 107 115 0.30729303973053845 3 5238 2 5638 4 5821 20 7855
2404 1.8016438274157593 2.6144753057100591 2.924896849338154 195 195 205 0.27611616390897242 3 5230 2 5639 4 5798
2405 1.4199386156782308 2.7875525911044301 3.2582977572322172 216 219 224 0.27978786152297536 3 8311 2 5642 21 9367
2406 1.4192878259535164 2.7853236853318153 3.2539889683112633 216 219 224 0.24988190241889272 3 8310 2 5643 4 8976 21 9368 22 7460 20 8041 19 3388
2407 1.5287774857589858 2.7421513898712937 3.1561960728330112 200 200 208 0.33214122224033515 1 5964 2 5653 24 7746 22 7448
2408 1.8278130233190222 2.6172865090705364 2.8950578916634093 110 113 120 0.26144885903843051 1 6014 2 5662 8 4283
2409 1.365887745190566 2.8266356251449838 3.3007148940459992 146 149 156 0.30472150437157552 3 5307 2 5668 4 5989 21 7562
2410 1.2003317269513696 2.9258767165502868 3.4548213814245048 98 101 109 0.096100729253212155 3 5351 2 5694 4 6087
2411 1.2004877388819533 2.9223535281300346 3.4493879640746492 98 101 109 0.19135713840326624 3 5350 2 5695 4 6086 21 4548
2412 1.5365366158397191 2.7660581589525242 3.1438177731996304 216 216 224 0.15586147478623988 1 9172 3 5323 2 5696 4 5975
2413 4.5930274467175494 4.558841303202172 6.0723258410565064 201 200 195 0.14600766491481651 3 8275 2 5700 4 8825
2414 0.74585293425626276 3.1288474879422403 3.8411828892356201 105 106 111 0.077215689965390188 1 5962 3 5416 2 5714
2415 1.1181562082792329 2.964888113212464 3.5143138031797574 81 84 93 0.10902045240734846 1 6009 3 5376 2 5720
2416 1.5909966832337483 2.7610661380004151 3.1109944492236989 208 211 218 0.12587584369629845 3 5330 2 5724 4 5980
